22.239999999990687 -14.214999999850988 2.339999999999975
22.260000000009313 -13.834999999962747 2.3899999999999864
22.279999999969732 -13.43500000052154 2.339999999999975
22.29999999998836 -13.035000000149012 2.2999999999999545
22.320000000006985 -12.65500000026077 2.2799999999999727
22.339999999967404 -12.245000000111759 2.2299999999999613
22.35999999998603 -11.855000000447035 2.2099999999999795
22.380000000004657 -11.474999999627471 2.17999999999995
22.399999999965075 -11.084999999962747 2.159999999999968
22.419999999983702 -10.695000000298023 2.1299999999999955
22.44000000000233 -10.315000000409782 2.109999999999957
22.460000000020955 -9.915000000037253 2.079999999999984
22.479999999981374 -9.525000000372529 2.0499999999999545
22.5 -9.15500000026077 2.0399999999999636
22.520000000018626 -8.764999999664724 2.019999999999982
22.539999999979045 -8.375 1.9799999999999613
22.55999999999767 -7.995000000111759 1.9599999999999795
22.580000000016298 -7.615000000223517 1.9399999999999977
22.599999999976717 -7.224999999627471 1.8999999999999773
22.630000000004657 -6.8250000001862645 1.839999999999975
22.649999999965075 -6.435000000521541 1.8099999999999454
22.669999999983702 -6.065000000409782 1.7899999999999636
22.69000000000233 -5.6749999998137355 1.7399999999999523
22.710000000020955 -5.294999999925494 1.7099999999999795
22.729999999981374 -4.9249999998137355 1.6899999999999977
22.75 -4.535000000149012 1.6399999999999864
22.770000000018626 -4.15500000026077 1.6399999999999864
22.789999999979045 -3.775000000372529 1.589999999999975
22.75 -3.665000000037253 2.6199999999999477
22.760000000009313 -3.3250000001862645 2.7299999999999613
22.820000000006985 -2.794999999925494 2.079999999999984
22.839999999967404 -2.415000000037253 2.0499999999999545
22.90999999997439 -1.7850000001490116 1.0299999999999727
22.929999999993015 -1.415000000037253 1.009999999999991
22.95000000001164 -1.0449999999254942 1.0
22.96999999997206 -0.6650000000372529 0.9899999999999523
22.989999999990687 -0.2949999999254942 0.9699999999999704
23.010000000009313 0.07500000018626451 0.9899999999999523
23.020000000018626 0.4249999998137355 0.9899999999999523
23.039999999979045 0.7949999999254942 1.0
23.05999999999767 1.165000000037253 0.9899999999999523
23.080000000016298 1.525000000372529 0.9599999999999795
23.099999999976717 1.8849999997764826 0.9699999999999704
23.119999999995343 2.2549999998882413 0.9699999999999704
23.14000000001397 2.6150000002235174 0.9199999999999591
23.15999999997439 2.985000000335276 0.9099999999999682
23.179999999993015 3.375 0.7799999999999727
23.29999999998836 5.865000000223517 0.8499999999999659
23.320000000006985 6.214999999850988 0.8199999999999932
23.339999999967404 6.5750000001862645 0.8099999999999454
23.35999999998603 6.934999999590218 0.8199999999999932
23.380000000004657 7.285000000149012 0.8199999999999932
23.39000000001397 7.625 0.8299999999999841
23.40999999997439 7.974999999627471 0.839999999999975
23.429999999993015 8.334999999962747 0.8099999999999454
23.45000000001164 8.684999999590218 0.7999999999999545
23.460000000020955 9.035000000149012 0.7799999999999727
23.479999999981374 9.365000000223517 0.8799999999999955
23.489999999990687 9.695000000298023 0.8999999999999773
23.510000000009313 10.044999999925494 0.8999999999999773
23.529999999969732 10.40500000026077 0.8799999999999955
23.539999999979045 10.714999999850988 0.9599999999999795
23.55999999999767 11.054999999701977 0.9799999999999613
23.570000000006985 11.40500000026077 0.9699999999999704
23.589999999967404 11.754999999888241 0.9599999999999795
23.60999999998603 12.104999999515712 0.9099999999999682
23.529999999969732 11.985000000335276 2.569999999999993
23.529999999969732 12.214999999850988 2.9599999999999795
23.239999999990687 11.075000000186265 8.21999999999997
23.239999999990687 11.304999999701977 8.569999999999993
23.210000000020955 11.424999999813735 9.329999999999984
23.210000000020955 11.695000000298023 9.539999999999964
23.229999999981374 12.014999999664724 9.559999999999945
23.239999999990687 12.34499999973923 9.589999999999975
23.25 12.615000000223517 9.75
23.260000000009313 12.934999999590218 9.799999999999955
23.169999999983702 12.714999999850988 11.729999999999961
23.19000000000233 13.075000000186265 11.579999999999984
23.229999999981374 13.495000000111759 11.269999999999982
23.25 13.875 11.119999999999948
23.25 14.134999999776483 11.349999999999966
23.619999999995343 15.934999999590218 5.1299999999999955
23.289999999979045 14.56499999947846 10.939999999999998
23.25 14.59499999973923 11.95999999999998
23.279999999969732 14.985000000335276 11.759999999999991
23.339999999967404 15.535000000149012 10.95999999999998
23.339999999967404 15.794999999925494 11.159999999999968
23.349999999976717 16.03500000014901 11.42999999999995
23.339999999967404 16.22499999962747 11.889999999999986
23.330000000016298 16.434999999590218 12.21999999999997
23.40999999997439 17.075000000186265 11.139999999999986
23.419999999983702 17.354999999515712 11.289999999999964
23.649999999965075 18.514999999664724 7.359999999999957
23.739999999990687 17.684999999590218 10.319999999999993
23.599999999976717 16.804999999701977 12.329999999999984
23.580000000016298 16.46499999985099 12.439999999999998
23.589999999967404 16.25499999988824 12.139999999999986
23.599999999976717 16.115000000223517 11.569999999999993
23.869999999995343 17.424999999813735 7.089999999999975
23.630000000004657 15.995000000111759 10.95999999999998
23.60999999998603 15.684999999590218 10.949999999999989
23.630000000004657 15.544999999925494 10.399999999999977
23.580000000016298 15.035000000149012 11.119999999999948
23.55999999999767 14.745000000111759 11.039999999999964
23.510000000009313 14.254999999888241 11.67999999999995
23.529999999969732 14.104999999515712 11.159999999999968
24.14000000001397 17.115000000223517 0.7599999999999909
23.619999999995343 14.31499999947846 9.349999999999966
24.119999999995343 16.794999999925494 0.7599999999999909
23.5 13.464999999850988 11.229999999999961
23.45000000001164 13.025000000372529 11.67999999999995
23.429999999993015 12.665000000037253 11.869999999999948
23.510000000009313 12.825000000186265 10.20999999999998
23.510000000009313 12.584999999962747 9.979999999999961
23.510000000009313 12.34499999973923 9.71999999999997
23.5 12.044999999925494 9.649999999999977
23.510000000009313 11.834999999962747 9.279999999999973
23.539999999979045 11.754999999888241 8.42999999999995
23.830000000016298 13.195000000298023 3.3699999999999477
23.520000000018626 11.424999999813735 8.529999999999973
23.520000000018626 11.165000000037253 8.319999999999993
23.630000000004657 11.445000000298023 6.17999999999995
23.79999999998836 12.075000000186265 2.849999999999966
23.899999999965075 12.275000000372529 0.9499999999999886
23.880000000004657 11.955000000074506 0.9499999999999886
23.869999999995343 11.634999999776483 0.9499999999999886
23.849999999976717 11.304999999701977 0.9699999999999704
23.839999999967404 10.974999999627471 0.9599999999999795
23.820000000006985 10.65500000026077 0.9599999999999795
23.80999999999767 10.34499999973923 0.9099999999999682
23.789999999979045 10.014999999664724 0.8999999999999773
23.779999999969732 9.695000000298023 0.8999999999999773
23.760000000009313 9.365000000223517 0.8999999999999773
23.75 9.044999999925494 0.8299999999999841
23.739999999990687 8.714999999850988 0.8199999999999932
23.71999999997206 8.394999999552965 0.839999999999975
23.70000000001164 8.06499999947846 0.8299999999999841
23.69000000000233 7.714999999850988 0.8499999999999659
23.669999999983702 7.384999999776483 0.8299999999999841
23.65999999997439 7.064999999478459 0.8199999999999932
23.64000000001397 6.724999999627471 0.839999999999975
23.619999999995343 6.384999999776483 0.8599999999999568
23.60999999998603 6.064999999478459 0.8299999999999841
23.589999999967404 5.714999999850988 0.8499999999999659
23.5 3.7149999998509884 0.8099999999999454
23.479999999981374 3.3650000002235174 0.8199999999999932
23.460000000020955 2.9950000001117587 0.9199999999999591
23.44000000000233 2.6550000002607703 0.9399999999999977
23.419999999983702 2.3049999997019768 0.9599999999999795
23.40999999997439 1.9550000000745058 0.9799999999999613
23.39000000001397 1.6150000002235174 0.9799999999999613
23.369999999995343 1.2649999996647239 1.009999999999991
23.349999999976717 0.9249999998137355 1.0
23.339999999967404 0.5649999994784594 1.0299999999999727
23.320000000006985 0.23500000033527613 1.0199999999999818
23.30999999999767 -0.11500000022351742 1.009999999999991
23.289999999979045 -0.4649999998509884 1.009999999999991
23.270000000018626 -0.8049999997019768 1.009999999999991
23.260000000009313 -1.1550000002607703 1.009999999999991
23.239999999990687 -1.5049999998882413 1.0199999999999818
23.21999999997206 -1.8449999997392297 1.0399999999999636
23.149999999965075 -2.4649999998509884 2.079999999999984
23.130000000004657 -2.815000000409782 2.0499999999999545
23.070000000006985 -3.3650000002235174 2.8799999999999955
23.080000000016298 -3.6150000002235174 2.4699999999999704
23.080000000016298 -3.8650000002235174 2.0599999999999454
23.089999999967404 -4.115000000223517 1.6499999999999773
23.070000000006985 -4.464999999850988 1.67999999999995
23.04999999998836 -4.8250000001862645 1.6999999999999886
23.029999999969732 -5.185000000521541 1.6999999999999886
23.010000000009313 -5.544999999925494 1.75
22.989999999990687 -5.915000000037253 1.8099999999999454
22.979999999981374 -6.264999999664724 1.8199999999999932
22.960000000020955 -6.634999999776483 1.839999999999975
22.94000000000233 -6.995000000111759 1.8899999999999864
22.919999999983702 -7.365000000223517 1.9399999999999977
22.899999999965075 -7.735000000335276 1.9599999999999795
22.880000000004657 -8.084999999962747 1.9899999999999523
22.85999999998603 -8.455000000074506 2.009999999999991
22.849999999976717 -8.815000000409782 2.019999999999982
22.830000000016298 -9.174999999813735 2.0399999999999636
22.80999999999767 -9.535000000149012 2.0499999999999545
22.789999999979045 -9.915000000037253 2.089999999999975
22.770000000018626 -10.275000000372529 2.099999999999966
22.75 -10.65500000026077 2.1499999999999773
22.739999999990687 -11.004999999888241 2.169999999999959
22.71999999997206 -11.375 2.1899999999999977
22.70000000001164 -11.745000000111759 2.2099999999999795
22.679999999993015 -12.105000000447035 2.2299999999999613
22.65999999997439 -12.485000000335276 2.259999999999991
22.64000000001397 -12.855000000447035 2.269999999999982
22.630000000004657 -13.205000000074506 2.259999999999991
22.60999999998603 -13.584999999962747 2.319999999999993
22.589999999967404 -13.945000000298023 2.319999999999993
22.570000000006985 -14.304999999701977 2.3099999999999454
22.54999999998836 -14.68500000052154 2.329999999999984
22.529999999969732 -15.044999999925494 2.359999999999957
22.520000000018626 -15.415000000037253 2.349999999999966
22.5 -15.794999999925494 2.3699999999999477
22.479999999981374 -16.174999999813735 2.3999999999999773
22.460000000020955 -16.544999999925494 2.3799999999999955
22.44000000000233 -16.90500000026077 2.3999999999999773
22.380000000004657 -17.46499999985099 3.2099999999999795
22.349999999976717 -17.895000000484288 3.4599999999999795
22.39000000001397 -18.014999999664724 2.419999999999959
22.369999999995343 -18.395000000484288 2.42999999999995
22.349999999976717 -18.77500000037253 2.4399999999999977
22.339999999967404 -19.145000000484288 2.4599999999999795
23.089999999967404 -19.165000000037253 2.4499999999999886
23.119999999995343 -18.764999999664724 2.42999999999995
23.14000000001397 -18.365000000223517 2.419999999999959
23.10999999998603 -18.145000000484288 3.259999999999991
23.10999999998603 -17.804999999701977 3.5399999999999636
23.20000000001164 -17.145000000484288 2.3899999999999864
23.21999999997206 -16.735000000335276 2.349999999999966
23.239999999990687 -16.334999999962747 2.3699999999999477
23.260000000009313 -15.924999999813735 2.3699999999999477
23.279999999969732 -15.535000000149012 2.339999999999975
23.29999999998836 -15.125 2.3099999999999454
23.320000000006985 -14.724999999627471 2.3099999999999454
23.339999999967404 -14.334999999962747 2.329999999999984
23.35999999998603 -13.924999999813735 2.2999999999999545
23.380000000004657 -13.525000000372529 2.2899999999999636
23.399999999965075 -13.134999999776483 2.259999999999991
23.419999999983702 -12.724999999627471 2.2199999999999704
23.45000000001164 -12.325000000186265 2.1999999999999886
23.460000000020955 -11.93500000052154 2.2099999999999795
23.489999999990687 -11.525000000372529 2.169999999999959
23.510000000009313 -11.134999999776483 2.169999999999959
23.529999999969732 -10.724999999627471 2.1299999999999955
23.54999999998836 -10.334999999962747 2.099999999999966
23.570000000006985 -9.93500000052154 2.069999999999993
23.589999999967404 -9.525000000372529 2.0299999999999727
23.60999999998603 -9.134999999776483 2.0399999999999636
23.630000000004657 -8.745000000111759 2.019999999999982
23.649999999965075 -8.355000000447035 2.009999999999991
23.669999999983702 -7.945000000298023 1.9599999999999795
23.69000000000233 -7.5750000001862645 1.9599999999999795
23.710000000020955 -7.15500000026077 1.8899999999999864
23.739999999990687 -6.764999999664724 1.8699999999999477
23.75 -6.375 1.8599999999999568
23.779999999969732 -5.974999999627471 1.7899999999999636
23.79999999998836 -5.5750000001862645 1.7699999999999818
23.820000000006985 -5.195000000298023 1.7399999999999523
23.839999999967404 -4.794999999925494 1.7099999999999795
23.85999999998603 -4.40500000026077 1.67999999999995
23.880000000004657 -4.004999999888241 1.6499999999999773
23.880000000004657 -3.705000000074506 1.9399999999999977
23.869999999995343 -3.474999999627471 2.5499999999999545
23.880000000004657 -3.125 2.6999999999999886
23.989999999990687 -2.334999999962747 1.0599999999999454
24.010000000009313 -1.9450000002980232 1.0199999999999818
24.029999999969732 -1.5549999997019768 1.0199999999999818
24.04999999998836 -1.1749999998137355 1.0199999999999818
24.070000000006985 -0.8049999997019768 1.009999999999991
24.089999999967404 -0.4249999998137355 1.009999999999991
24.10999999998603 -0.03500000014901161 1.0
24.119999999995343 0.3250000001862645 1.0299999999999727
24.14000000001397 0.7149999998509884 1.009999999999991
24.15999999997439 1.084999999962747 1.0399999999999636
24.179999999993015 1.4550000000745058 1.0299999999999727
24.21999999997206 2.235000000335276 0.9599999999999795
24.239999999990687 2.6049999995157123 0.9399999999999977
24.260000000009313 2.985000000335276 0.9099999999999682
24.279999999969732 3.3849999997764826 0.8099999999999454
24.29999999998836 3.764999999664724 0.8199999999999932
24.39000000001397 5.59499999973923 0.8499999999999659
24.40999999997439 5.974999999627471 0.839999999999975
24.429999999993015 6.334999999962747 0.8699999999999477
24.45000000001164 6.705000000074506 0.839999999999975
24.46999999997206 7.0750000001862645 0.8499999999999659
24.489999999990687 7.445000000298023 0.839999999999975
24.5 7.804999999701977 0.8199999999999932
24.520000000018626 8.174999999813735 0.8199999999999932
24.539999999979045 8.535000000149012 0.839999999999975
24.55999999999767 8.894999999552965 0.8199999999999932
24.570000000006985 9.235000000335276 0.9099999999999682
24.589999999967404 9.604999999515712 0.9199999999999591
24.60999999998603 9.964999999850988 0.8999999999999773
24.619999999995343 10.31499999947846 0.92999999999995
24.64000000001397 10.665000000037253 0.9699999999999704
24.65999999997439 11.035000000149012 0.9699999999999704
24.669999999983702 11.384999999776483 0.9899999999999523
24.69000000000233 11.745000000111759 0.9499999999999886
24.710000000020955 12.115000000223517 0.92999999999995
24.729999999981374 12.474999999627471 0.92999999999995
24.75 12.825000000186265 0.9199999999999591
24.460000000020955 11.684999999590218 6.239999999999952
24.45000000001164 11.894999999552965 6.739999999999952
24.45000000001164 12.165000000037253 6.989999999999952
24.339999999967404 11.884999999776483 9.229999999999961
24.339999999967404 12.174999999813735 9.399999999999977
24.35999999998603 12.544999999925494 9.349999999999966
24.349999999976717 12.754999999888241 9.829999999999984
24.380000000004657 13.134999999776483 9.699999999999989
24.429999999993015 13.625 9.169999999999959
24.489999999990687 14.224999999627471 8.279999999999973
24.399999999965075 14.014999999664724 10.239999999999952
24.399999999965075 14.275000000372529 10.519999999999982
24.419999999983702 14.634999999776483 10.439999999999998
24.489999999990687 15.245000000111759 9.509999999999991
24.489999999990687 15.485000000335276 9.869999999999948
24.69000000000233 16.47499999962747 6.4599999999999795
24.489999999990687 15.745000000111759 10.099999999999966
24.5 16.075000000186265 10.159999999999968
24.5 16.334999999962747 10.449999999999989
24.5 16.56499999947846 10.759999999999991
24.460000000020955 16.615000000223517 11.769999999999982
24.45000000001164 16.834999999962747 12.149999999999977
24.779999999969732 17.075000000186265 11.879999999999995
25.119999999995343 18.78500000014901 6.069999999999993
24.770000000018626 16.78500000014901 11.799999999999955
24.760000000009313 16.514999999664724 11.569999999999993
24.789999999979045 16.375 10.92999999999995
24.849999999976717 16.455000000074506 9.599999999999966
24.79999999998836 15.964999999850988 10.139999999999986
24.75 15.474999999627471 10.699999999999989
24.830000000016298 15.59499999973923 9.169999999999959
24.80999999999767 15.254999999888241 9.20999999999998
24.71999999997206 14.544999999925494 10.489999999999952
24.710000000020955 14.254999999888241 10.389999999999986
24.71999999997206 14.035000000149012 9.989999999999952
24.80999999999767 14.245000000111759 8.129999999999995
24.75 13.705000000074506 8.819999999999993
24.760000000009313 13.495000000111759 8.419999999999959
24.75 13.195000000298023 8.279999999999973
24.779999999969732 13.084999999962747 7.509999999999991
24.79999999998836 12.884999999776483 7.0
24.649999999965075 11.90500000026077 9.299999999999955
24.839999999967404 12.84499999973923 5.989999999999952
24.830000000016298 12.544999999925494 5.859999999999957
25.119999999995343 13.955000000074506 0.8899999999999864
24.80999999999767 12.195000000298023 5.889999999999986
24.820000000006985 11.964999999850988 5.539999999999964
24.830000000016298 11.775000000372529 4.979999999999961
25.070000000006985 12.924999999813735 0.8999999999999773
25.04999999998836 12.56499999947846 0.92999999999995
25.039999999979045 12.235000000335276 0.9199999999999591
25.020000000018626 11.875 0.9599999999999795
25.0 11.525000000372529 0.9799999999999613
24.989999999990687 11.184999999590218 0.9699999999999704
24.96999999997206 10.834999999962747 0.9799999999999613
24.95000000001164 10.495000000111759 0.92999999999995
24.94000000000233 10.15500000026077 0.9199999999999591
24.919999999983702 9.81499999947846 0.8999999999999773
24.90999999997439 9.464999999850988 0.8999999999999773
24.89000000001397 9.104999999515712 0.9199999999999591
24.85999999998603 8.434999999590218 0.8299999999999841
24.839999999967404 8.075000000186265 0.8499999999999659
24.830000000016298 7.724999999627471 0.839999999999975
24.80999999999767 7.365000000223517 0.8799999999999955
24.789999999979045 7.014999999664724 0.8599999999999568
24.779999999969732 6.665000000037253 0.8699999999999477
24.760000000009313 6.314999999478459 0.8499999999999659
24.739999999990687 5.955000000074506 0.8699999999999477
24.71999999997206 5.59499999973923 0.8599999999999568
24.630000000004657 3.4649999998509884 0.8199999999999932
24.60999999998603 3.0949999997392297 0.8599999999999568
24.589999999967404 2.7149999998509884 0.9499999999999886
24.570000000006985 2.3549999995157123 0.9599999999999795
24.54999999998836 1.974999999627471 1.0
24.46999999997206 1.334999999962747 2.0499999999999545
24.45000000001164 0.974999999627471 2.079999999999984
24.44000000000233 0.625 2.019999999999982
24.419999999983702 0.2549999998882413 2.0599999999999454
24.399999999965075 -0.09499999973922968 2.0299999999999727
24.39000000001397 -0.4649999998509884 2.0299999999999727
24.429999999993015 -0.5650000004097819 1.0199999999999818
24.349999999976717 -1.1950000002980232 2.0399999999999636
24.339999999967404 -1.5549999997019768 2.019999999999982
24.30999999999767 -1.9350000005215406 2.079999999999984
24.29999999998836 -2.294999999925494 2.0599999999999454
24.279999999969732 -2.665000000037253 2.079999999999984
24.21999999997206 -3.205000000074506 2.7399999999999523
24.210000000020955 -3.5750000001862645 2.7199999999999704
24.239999999990687 -3.7149999998509884 1.849999999999966
24.229999999981374 -4.035000000149012 1.6399999999999864
24.210000000020955 -4.415000000037253 1.6899999999999977
24.20000000001164 -4.785000000149012 1.7199999999999704
24.179999999993015 -5.165000000037253 1.75
24.149999999965075 -5.544999999925494 1.7899999999999636
24.14000000001397 -5.9249999998137355 1.839999999999975
24.119999999995343 -6.304999999701977 1.839999999999975
24.099999999976717 -6.685000000521541 1.849999999999966
24.080000000016298 -7.054999999701977 1.8799999999999955
24.05999999999767 -7.445000000298023 1.92999999999995
24.039999999979045 -7.8250000001862645 1.9599999999999795
24.020000000018626 -8.205000000074506 1.9799999999999613
24.0 -8.584999999962747 2.019999999999982
23.979999999981374 -8.964999999850988 2.019999999999982
23.960000000020955 -9.34499999973923 2.019999999999982
23.95000000001164 -9.724999999627471 2.0399999999999636
23.929999999993015 -10.115000000223517 2.089999999999975
23.90999999997439 -10.495000000111759 2.099999999999966
23.89000000001397 -10.884999999776483 2.099999999999966
23.869999999995343 -11.264999999664724 2.1499999999999773
23.849999999976717 -11.65500000026077 2.169999999999959
23.830000000016298 -12.035000000149012 2.17999999999995
23.80999999999767 -12.415000000037253 2.2099999999999795
23.789999999979045 -12.804999999701977 2.2299999999999613
23.770000000018626 -13.195000000298023 2.25
23.75 -13.575000000186265 2.2799999999999727
23.739999999990687 -13.964999999850988 2.2799999999999727
23.710000000020955 -14.355000000447035 2.2999999999999545
23.70000000001164 -14.724999999627471 2.2999999999999545
23.679999999993015 -15.115000000223517 2.319999999999993
23.65999999997439 -15.504999999888241 2.329999999999984
23.64000000001397 -15.90500000026077 2.349999999999966
23.619999999995343 -16.28500000014901 2.349999999999966
23.599999999976717 -16.674999999813735 2.3899999999999864
23.5 -17.384999999776483 3.7999999999999545
23.489999999990687 -17.75499999988824 3.6899999999999977
23.479999999981374 -18.084999999962747 3.5
23.529999999969732 -18.22499999962747 2.3899999999999864
23.510000000009313 -18.625 2.409999999999968
23.489999999990687 -19.00499999988824 2.419999999999959
24.270000000018626 -18.955000000074506 2.3799999999999955
24.279999999969732 -18.554999999701977 2.3799999999999955
24.29999999998836 -18.15500000026077 2.3899999999999864
24.270000000018626 -17.97499999962747 3.25
24.279999999969732 -17.645000000484288 3.569999999999993
24.369999999995343 -16.96499999985099 2.329999999999984
24.39000000001397 -16.565000000409782 2.329999999999984
24.399999999965075 -16.18500000052154 2.339999999999975
24.419999999983702 -15.785000000149012 2.319999999999993
24.45000000001164 -15.384999999776483 2.2899999999999636
24.46999999997206 -14.995000000111759 2.259999999999991
24.489999999990687 -14.605000000447035 2.259999999999991
24.510000000009313 -14.205000000074506 2.2399999999999523
24.529999999969732 -13.815000000409782 2.2199999999999704
24.54999999998836 -13.424999999813735 2.169999999999959
24.570000000006985 -13.035000000149012 2.159999999999968
24.589999999967404 -12.634999999776483 2.1399999999999864
24.60999999998603 -12.254999999888241 2.109999999999957
24.630000000004657 -11.865000000223517 2.1299999999999955
24.649999999965075 -11.474999999627471 2.109999999999957
24.669999999983702 -11.09499999973923 2.089999999999975
24.69000000000233 -10.695000000298023 2.0599999999999454
24.710000000020955 -10.304999999701977 2.019999999999982
24.729999999981374 -9.924999999813735 2.009999999999991
24.75 -9.535000000149012 2.0
24.770000000018626 -9.145000000484288 1.9699999999999704
24.789999999979045 -8.754999999888241 1.9499999999999886
24.80999999999767 -8.375 1.9099999999999682
24.830000000016298 -7.995000000111759 1.92999999999995
24.849999999976717 -7.605000000447035 1.8999999999999773
24.869999999995343 -7.214999999850988 1.8699999999999477
24.89000000001397 -6.84499999973923 1.8699999999999477
24.90999999997439 -6.464999999850988 1.8599999999999568
24.929999999993015 -6.0750000001862645 1.8199999999999932
24.95000000001164 -5.705000000074506 1.7899999999999636
24.96999999997206 -5.315000000409782 1.7699999999999818
24.989999999990687 -4.935000000521541 1.7699999999999818
25.010000000009313 -4.565000000409782 1.7299999999999613
25.029999999969732 -4.185000000521541 1.6999999999999886
25.04999999998836 -3.7850000001490116 1.599999999999966
25.020000000018626 -3.625 2.4499999999999886
25.029999999969732 -3.2850000001490116 2.5599999999999454
25.04999999998836 -2.915000000037253 2.5599999999999454
25.070000000006985 -2.5350000001490116 2.5499999999999545
25.089999999967404 -2.1550000002607703 2.5299999999999727
25.119999999995343 -1.7350000003352761 2.2999999999999545
25.14000000001397 -1.3650000002235174 2.2999999999999545
25.149999999965075 -1.025000000372529 2.409999999999968
25.169999999983702 -0.6950000002980232 2.4899999999999523
25.179999999993015 -0.3349999999627471 2.5499999999999545
25.20000000001164 0.044999999925494194 2.5299999999999727
25.21999999997206 0.4150000000372529 2.4699999999999704
25.25 0.8149999994784594 2.3099999999999454
25.270000000018626 1.1950000002980232 2.2899999999999636
25.270000000018626 1.4950000001117587 2.509999999999991
25.380000000004657 2.264999999664724 0.9699999999999704
25.399999999965075 2.6349999997764826 0.9399999999999977
25.419999999983702 3.0049999998882413 0.8799999999999955
25.44000000000233 3.3849999997764826 0.8199999999999932
25.45000000001164 3.684999999590218 1.0399999999999636
25.55999999999767 5.884999999776483 0.8499999999999659
25.580000000016298 6.235000000335276 0.8899999999999864
25.599999999976717 6.59499999973923 0.8699999999999477
25.619999999995343 6.945000000298023 0.8499999999999659
25.64000000001397 7.294999999925494 0.8599999999999568
25.649999999965075 7.65500000026077 0.8599999999999568
25.669999999983702 8.004999999888241 0.8499999999999659
25.69000000000233 8.354999999515712 0.8499999999999659
25.710000000020955 8.714999999850988 0.8199999999999932
25.71999999997206 9.035000000149012 0.9099999999999682
25.739999999990687 9.394999999552965 0.8999999999999773
25.75 9.745000000111759 0.9099999999999682
25.770000000018626 10.09499999973923 0.8999999999999773
25.789999999979045 10.424999999813735 0.9399999999999977
25.79999999998836 10.764999999664724 0.9699999999999704
25.820000000006985 11.104999999515712 0.9899999999999523
25.839999999967404 11.445000000298023 0.9799999999999613
25.849999999976717 11.785000000149012 1.009999999999991
25.869999999995343 12.144999999552965 0.9599999999999795
25.89000000001397 12.485000000335276 0.9399999999999977
25.90999999997439 12.834999999962747 0.9399999999999977
25.929999999993015 13.174999999813735 0.92999999999995
25.94000000000233 13.504999999888241 0.92999999999995
25.960000000020955 13.854999999515712 0.9199999999999591
25.85999999998603 13.625 2.92999999999995
25.839999999967404 13.794999999925494 3.5
25.64000000001397 13.054999999701977 7.259999999999991
25.849999999976717 14.115000000223517 3.569999999999993
25.669999999983702 13.464999999850988 7.019999999999982
25.85999999998603 14.40500000026077 3.7299999999999613
25.679999999993015 13.785000000149012 7.089999999999975
25.79999999998836 14.59499999973923 5.359999999999957
26.05999999999767 15.894999999552965 0.8599999999999568
25.79999999998836 14.84499999973923 5.669999999999959
25.820000000006985 15.205000000074506 5.569999999999993
26.089999999967404 16.554999999701977 0.9099999999999682
25.839999999967404 15.575000000186265 5.4599999999999795
26.10999999998603 16.884999999776483 0.9199999999999591
25.649999999965075 14.854999999515712 9.049999999999955
25.869999999995343 16.205000000074506 5.5499999999999545
25.60999999998603 15.165000000037253 10.259999999999991
25.899999999965075 16.615000000223517 5.269999999999982
25.619999999995343 15.415000000037253 10.489999999999952
25.589999999967404 15.514999999664724 11.25
25.839999999967404 17.02500000037253 7.189999999999998
25.55999999999767 15.834999999962747 12.349999999999966
25.94000000000233 17.74500000011176 5.839999999999975
25.570000000006985 16.115000000223517 12.489999999999952
25.94000000000233 18.014999999664724 6.029999999999973
25.649999999965075 16.804999999701977 11.25
25.929999999993015 18.195000000298023 6.539999999999964
25.649999999965075 17.044999999925494 11.479999999999961
25.96999999997206 18.634999999776483 6.079999999999984
25.679999999993015 17.434999999590218 11.25
25.90999999997439 18.59499999973923 7.329999999999984
25.80999999999767 18.53500000014901 9.699999999999989
25.679999999993015 18.125 12.119999999999948
25.929999999993015 18.544999999925494 12.989999999999952
25.929999999993015 18.365000000223517 12.629999999999995
25.929999999993015 18.115000000223517 12.439999999999998
25.94000000000233 17.955000000074506 11.96999999999997
26.070000000006985 18.34499999973923 9.639999999999986
25.90999999997439 17.334999999962747 12.079999999999984
25.899999999965075 17.075000000186265 11.919999999999959
26.21999999997206 18.644999999552965 6.599999999999966
25.929999999993015 16.96499999985099 11.259999999999991
26.210000000020955 18.365000000223517 6.509999999999991
25.919999999983702 16.695000000298023 11.169999999999959
26.20000000001164 18.09499999973923 6.389999999999986
25.839999999967404 16.044999999925494 12.359999999999957
25.839999999967404 15.81499999947846 12.079999999999984
26.210000000020955 17.705000000074506 5.6299999999999955
26.210000000020955 17.21499999985099 5.21999999999997
26.30999999999767 17.47499999962747 3.269999999999982
26.349999999976717 17.455000000074506 2.269999999999982
26.419999999983702 17.544999999925494 0.8999999999999773
25.989999999990687 15.195000000298023 7.909999999999968
26.399999999965075 17.21499999985099 0.9499999999999886
26.39000000001397 16.90500000026077 0.8999999999999773
26.119999999995343 15.334999999962747 5.289999999999964
26.369999999995343 16.59499999973923 0.9399999999999977
25.880000000004657 13.90500000026077 9.169999999999959
26.35999999998603 16.294999999925494 0.8799999999999955
25.85999999998603 13.56499999947846 9.279999999999973
26.05999999999767 14.575000000186265 5.759999999999991
26.070000000006985 14.365000000223517 5.389999999999986
26.330000000016298 15.634999999776483 0.9399999999999977
25.95000000001164 13.525000000372529 7.239999999999952
25.919999999983702 13.165000000037253 7.399999999999977
26.289999999979045 14.995000000111759 0.9799999999999613
25.929999999993015 12.945000000298023 7.0499999999999545
26.279999999969732 14.695000000298023 0.8999999999999773
26.270000000018626 14.375 0.9199999999999591
25.899999999965075 12.34499999973923 6.92999999999995
26.25 14.054999999701977 0.9199999999999591
26.229999999981374 13.724999999627471 0.9599999999999795
26.21999999997206 13.415000000037253 0.9399999999999977
26.20000000001164 13.084999999962747 0.9599999999999795
26.19000000000233 12.754999999888241 0.9699999999999704
26.169999999983702 12.434999999590218 1.0
26.15999999997439 12.115000000223517 0.9699999999999704
26.14000000001397 11.775000000372529 1.009999999999991
26.119999999995343 11.464999999850988 1.009999999999991
26.10999999998603 11.134999999776483 1.0
26.089999999967404 10.81499999947846 0.9899999999999523
26.080000000016298 10.495000000111759 0.9599999999999795
26.070000000006985 10.174999999813735 0.92999999999995
26.04999999998836 9.854999999515712 0.9099999999999682
26.039999999979045 9.525000000372529 0.8999999999999773
26.020000000018626 9.184999999590218 0.92999999999995
26.010000000009313 8.894999999552965 0.8299999999999841
25.989999999990687 8.554999999701977 0.8499999999999659
25.979999999981374 8.224999999627471 0.8499999999999659
25.960000000020955 7.884999999776483 0.8799999999999955
25.95000000001164 7.554999999701977 0.8799999999999955
25.929999999993015 7.224999999627471 0.8799999999999955
25.90999999997439 6.894999999552965 0.8799999999999955
25.899999999965075 6.564999999478459 0.8699999999999477
25.880000000004657 6.224999999627471 0.8799999999999955
25.869999999995343 5.915000000037253 0.8299999999999841
25.820000000006985 5.40500000026077 1.4399999999999977
25.760000000009313 3.5350000001490116 0.8299999999999841
25.739999999990687 3.205000000074506 0.8299999999999841
25.71999999997206 2.834999999962747 0.9399999999999977
25.70000000001164 2.485000000335276 0.9699999999999704
25.679999999993015 2.144999999552965 0.9899999999999523
25.669999999983702 1.8049999997019768 0.9899999999999523
25.589999999967404 1.184999999590218 2.0299999999999727
25.630000000004657 1.1049999995157123 1.0599999999999454
25.60999999998603 0.7450000001117587 1.079999999999984
25.520000000018626 0.044999999925494194 2.4499999999999886
25.5 -0.3049999997019768 2.509999999999991
25.489999999990687 -0.6349999997764826 2.4699999999999704
25.539999999979045 -0.6450000004842877 1.1199999999999477
25.520000000018626 -1.0149999996647239 1.25
25.45000000001164 -1.5949999997392297 2.169999999999959
25.45000000001164 -1.9050000002607703 2.009999999999991
25.460000000020955 -2.125 1.4899999999999523
25.45000000001164 -2.4249999998137355 1.2899999999999636
25.40999999997439 -2.8950000004842877 1.8099999999999454
25.399999999965075 -3.1950000002980232 1.579999999999984
25.39000000001397 -3.5350000001490116 1.5199999999999818
25.369999999995343 -3.8950000004842877 1.6099999999999568
24.95000000001164 -6.054999999701977 8.769999999999982
25.339999999967404 -4.285000000149012 1.7399999999999523
24.929999999993015 -6.40500000026077 8.759999999999991
25.30999999999767 -4.985000000335276 1.7699999999999818
25.289999999979045 -5.34499999973923 1.7899999999999636
25.270000000018626 -5.705000000074506 1.7999999999999545
25.260000000009313 -6.054999999701977 1.829999999999984
25.239999999990687 -6.4249999998137355 1.8599999999999568
25.21999999997206 -6.785000000149012 1.8799999999999955
25.20000000001164 -7.134999999776483 1.8799999999999955
25.179999999993015 -7.504999999888241 1.919999999999959
25.169999999983702 -7.865000000223517 1.92999999999995
25.149999999965075 -8.235000000335276 1.9499999999999886
25.130000000004657 -8.575000000186265 1.9499999999999886
25.10999999998603 -8.955000000074506 2.0
25.089999999967404 -9.315000000409782 2.0
25.080000000016298 -9.674999999813735 2.019999999999982
25.05999999999767 -10.035000000149012 2.019999999999982
25.039999999979045 -10.395000000484288 2.019999999999982
25.020000000018626 -10.754999999888241 2.0399999999999636
25.0 -11.125 2.089999999999975
24.989999999990687 -11.495000000111759 2.109999999999957
24.96999999997206 -11.855000000447035 2.109999999999957
24.95000000001164 -12.214999999850988 2.1299999999999955
24.929999999993015 -12.59499999973923 2.159999999999968
24.90999999997439 -12.964999999850988 2.1899999999999977
24.899999999965075 -13.325000000186265 2.1999999999999886
24.880000000004657 -13.695000000298023 2.2099999999999795
24.85999999998603 -14.075000000186265 2.2399999999999523
24.839999999967404 -14.445000000298023 2.259999999999991
24.820000000006985 -14.804999999701977 2.25
24.79999999998836 -15.174999999813735 2.269999999999982
24.779999999969732 -15.544999999925494 2.2899999999999636
24.770000000018626 -15.90500000026077 2.2899999999999636
24.75 -16.294999999925494 2.339999999999975
24.729999999981374 -16.665000000037253 2.339999999999975
24.710000000020955 -17.02500000037253 2.349999999999966
24.630000000004657 -17.68500000052154 3.609999999999957
24.599999999976717 -18.075000000186265 3.6999999999999886
24.65999999997439 -18.145000000484288 2.3699999999999477
24.64000000001397 -18.514999999664724 2.3899999999999864
24.619999999995343 -18.90500000026077 2.419999999999959
25.35999999998603 -18.855000000447035 2.3799999999999955
25.380000000004657 -18.47499999962747 2.3999999999999773
25.399999999965075 -18.075000000186265 2.3699999999999477
25.40999999997439 -17.68500000052154 2.3799999999999955
25.44000000000233 -17.294999999925494 2.349999999999966
25.460000000020955 -16.90500000026077 2.349999999999966
25.46999999997206 -16.50499999988824 2.349999999999966
25.5 -16.115000000223517 2.3099999999999454
25.520000000018626 -15.724999999627471 2.2899999999999636
25.529999999969732 -15.325000000186265 2.2799999999999727
25.55999999999767 -14.945000000298023 2.259999999999991
25.580000000016298 -14.554999999701977 2.2399999999999523
25.589999999967404 -14.15500000026077 2.2399999999999523
25.619999999995343 -13.754999999888241 2.2099999999999795
25.64000000001397 -13.375 2.169999999999959
25.65999999997439 -12.974999999627471 2.1499999999999773
25.679999999993015 -12.59499999973923 2.1499999999999773
25.70000000001164 -12.195000000298023 2.109999999999957
25.71999999997206 -11.825000000186265 2.109999999999957
25.739999999990687 -11.424999999813735 2.069999999999993
25.760000000009313 -11.035000000149012 2.0599999999999454
25.779999999969732 -10.65500000026077 2.0299999999999727
25.79999999998836 -10.275000000372529 2.019999999999982
25.820000000006985 -9.875 2.0
25.839999999967404 -9.504999999888241 2.0
25.85999999998603 -9.115000000223517 1.9699999999999704
25.880000000004657 -8.735000000335276 1.9799999999999613
25.899999999965075 -8.355000000447035 1.92999999999995
25.90999999997439 -7.974999999627471 1.92999999999995
25.94000000000233 -7.5750000001862645 1.8799999999999955
25.960000000020955 -7.185000000521541 1.849999999999966
25.96999999997206 -6.8250000001862645 1.8699999999999477
25.989999999990687 -6.435000000521541 1.829999999999984
26.010000000009313 -6.065000000409782 1.829999999999984
25.64000000001397 -7.445000000298023 8.849999999999966
25.669999999983702 -7.014999999664724 8.609999999999957
25.489999999990687 -7.535000000149012 12.189999999999998
25.5 -7.185000000521541 12.259999999999991
25.580000000016298 -6.554999999701977 11.159999999999968
25.710000000020955 -5.695000000298023 9.25
26.14000000001397 -3.7450000001117587 1.5299999999999727
26.15999999997439 -3.3650000002235174 1.509999999999991
26.179999999993015 -2.974999999627471 1.3999999999999773
26.210000000020955 -2.5750000001862645 1.2899999999999636
26.229999999981374 -2.1749999998137355 1.1899999999999977
25.89000000001397 -3.455000000074506 7.599999999999966
26.270000000018626 -1.4249999998137355 1.1499999999999773
25.929999999993015 -2.6950000002980232 7.5
26.289999999979045 -1.0449999999254942 1.099999999999966
26.30999999999767 -0.6950000002980232 1.1099999999999568
26.330000000016298 -0.3049999997019768 1.0599999999999454
26.349999999976717 0.06499999947845936 1.0599999999999454
26.369999999995343 0.4249999998137355 1.079999999999984
26.39000000001397 0.7949999999254942 1.0399999999999636
26.40999999997439 1.165000000037253 1.009999999999991
26.429999999993015 1.5449999999254942 0.9899999999999523
26.44000000000233 1.9050000002607703 1.0
26.460000000020955 2.264999999664724 0.9699999999999704
26.479999999981374 2.6349999997764826 0.9599999999999795
26.5 3.025000000372529 0.8599999999999568
26.520000000018626 3.3849999997764826 0.839999999999975
26.539999999979045 3.7450000001117587 0.8599999999999568
26.55999999999767 4.115000000223517 0.8299999999999841
26.570000000006985 4.455000000074506 0.8599999999999568
26.589999999967404 4.814999999478459 0.8799999999999955
26.60999999998603 5.1749999998137355 0.8599999999999568
26.630000000004657 5.525000000372529 0.8599999999999568
26.649999999965075 5.884999999776483 0.8499999999999659
26.65999999997439 6.245000000111759 0.8699999999999477
26.679999999993015 6.59499999973923 0.8899999999999864
26.70000000001164 6.945000000298023 0.8799999999999955
26.710000000020955 7.294999999925494 0.8799999999999955
26.729999999981374 7.65500000026077 0.8899999999999864
26.75 8.004999999888241 0.8499999999999659
26.770000000018626 8.365000000223517 0.8499999999999659
26.779999999969732 8.714999999850988 0.8499999999999659
26.79999999998836 9.035000000149012 0.92999999999995
26.820000000006985 9.384999999776483 0.9399999999999977
26.830000000016298 9.735000000335276 0.92999999999995
26.849999999976717 10.075000000186265 0.9399999999999977
26.869999999995343 10.424999999813735 0.9499999999999886
26.880000000004657 10.754999999888241 1.0299999999999727
26.899999999965075 11.09499999973923 1.009999999999991
26.90999999997439 11.424999999813735 1.0499999999999545
26.929999999993015 11.785000000149012 1.009999999999991
26.95000000001164 12.134999999776483 1.009999999999991
26.96999999997206 12.485000000335276 0.9799999999999613
26.979999999981374 12.834999999962747 0.9699999999999704
27.0 13.174999999813735 0.9599999999999795
27.020000000018626 13.514999999664724 0.9699999999999704
27.039999999979045 13.854999999515712 0.9399999999999977
27.04999999998836 14.205000000074506 0.92999999999995
27.070000000006985 14.544999999925494 0.9599999999999795
26.679999999993015 12.894999999552965 7.889999999999986
27.080000000016298 14.854999999515712 1.0199999999999818
26.65999999997439 13.014999999664724 8.629999999999995
27.099999999976717 15.214999999850988 0.9399999999999977
26.64000000001397 13.174999999813735 9.269999999999982
26.679999999993015 13.615000000223517 8.829999999999984
26.70000000001164 13.964999999850988 8.769999999999982
26.770000000018626 14.56499999947846 7.869999999999948
26.75 14.724999999627471 8.42999999999995
26.760000000009313 15.025000000372529 8.519999999999982
26.739999999990687 15.165000000037253 9.20999999999998
26.770000000018626 15.59499999973923 8.859999999999957
26.849999999976717 16.22499999962747 7.769999999999982
26.520000000018626 14.825000000186265 13.71999999999997
26.619999999995343 15.544999999925494 12.379999999999995
26.60999999998603 15.724999999627471 12.849999999999966
26.580000000016298 15.81499999947846 13.629999999999995
26.539999999979045 15.865000000223517 14.539999999999964
26.770000000018626 17.014999999664724 10.659999999999968
26.570000000006985 16.24500000011176 14.349999999999966
26.589999999967404 16.615000000223517 14.169999999999959
26.649999999965075 17.125 13.5
26.669999999983702 17.49500000011176 13.359999999999957
26.64000000001397 17.575000000186265 14.119999999999948
26.839999999967404 18.575000000186265 10.759999999999991
26.630000000004657 17.75499999988824 14.609999999999957
26.64000000001397 18.03500000014901 14.729999999999961
26.729999999981374 18.735000000335276 13.389999999999986
26.880000000004657 18.40500000026077 15.329999999999984
26.849999999976717 18.075000000186265 15.449999999999989
26.880000000004657 17.985000000335276 14.759999999999991
26.869999999995343 17.674999999813735 14.759999999999991
26.779999999969732 17.03500000014901 15.949999999999989
26.880000000004657 17.294999999925494 14.039999999999964
26.880000000004657 17.03500000014901 13.909999999999968
26.979999999981374 17.325000000186265 11.92999999999995
27.15999999997439 18.28500000014901 8.67999999999995
26.779999999969732 16.104999999515712 15.019999999999982
26.75 15.714999999850988 15.319999999999993
26.760000000009313 15.514999999664724 14.92999999999995
26.80999999999767 15.56499999947846 13.759999999999991
26.80999999999767 15.304999999701977 13.599999999999966
26.79999999998836 15.014999999664724 13.529999999999973
26.94000000000233 15.495000000111759 10.819999999999993
27.229999999981374 16.97499999962747 5.739999999999952
26.849999999976717 14.81499999947846 12.139999999999986
27.20000000001164 16.59499999973923 6.029999999999973
27.25 16.575000000186265 4.979999999999961
27.15999999997439 15.894999999552965 6.229999999999961
27.39000000001397 17.044999999925494 2.2799999999999727
27.14000000001397 15.554999999701977 6.359999999999957
27.10999999998603 15.184999999590218 6.559999999999945
27.44000000000233 16.794999999925494 0.9899999999999523
26.989999999990687 14.31499999947846 8.45999999999998
26.979999999981374 14.035000000149012 8.379999999999995
27.39000000001397 15.834999999962747 0.9799999999999613
26.919999999983702 13.245000000111759 8.909999999999968
26.90999999997439 12.995000000111759 8.739999999999952
27.35999999998603 15.205000000074506 0.9799999999999613
27.349999999976717 14.875 0.9799999999999613
27.330000000016298 14.56499999947846 0.9599999999999795
27.320000000006985 14.245000000111759 0.9399999999999977
27.29999999998836 13.924999999813735 0.9699999999999704
27.289999999979045 13.59499999973923 0.9599999999999795
27.270000000018626 13.275000000372529 0.9499999999999886
27.260000000009313 12.934999999590218 0.9699999999999704
27.239999999990687 12.625 0.9799999999999613
27.21999999997206 12.285000000149012 1.009999999999991
27.210000000020955 11.945000000298023 1.0299999999999727
27.19000000000233 11.625 1.0299999999999727
27.169999999983702 11.294999999925494 1.0399999999999636
27.15999999997439 10.964999999850988 1.0299999999999727
27.149999999965075 10.65500000026077 0.9899999999999523
27.130000000004657 10.334999999962747 0.9599999999999795
27.119999999995343 10.004999999888241 0.9599999999999795
27.099999999976717 9.665000000037253 0.9799999999999613
27.089999999967404 9.34499999973923 0.92999999999995
27.070000000006985 9.014999999664724 0.9499999999999886
27.05999999999767 8.695000000298023 0.8599999999999568
27.039999999979045 8.365000000223517 0.8699999999999477
27.029999999969732 8.025000000372529 0.8899999999999864
27.010000000009313 7.684999999590218 0.8999999999999773
27.0 7.354999999515712 0.8899999999999864
26.979999999981374 7.025000000372529 0.8899999999999864
26.960000000020955 6.684999999590218 0.8899999999999864
26.95000000001164 6.354999999515712 0.8599999999999568
26.929999999993015 6.014999999664724 0.8999999999999773
26.919999999983702 5.6749999998137355 0.8699999999999477
26.899999999965075 5.34499999973923 0.8499999999999659
26.89000000001397 5.004999999888241 0.8599999999999568
26.869999999995343 4.665000000037253 0.8599999999999568
26.849999999976717 4.334999999962747 0.839999999999975
26.839999999967404 3.9950000001117587 0.8299999999999841
26.820000000006985 3.644999999552965 0.8699999999999477
26.80999999999767 3.3049999997019768 0.8499999999999659
26.779999999969732 2.9450000002980232 0.9599999999999795
26.770000000018626 2.584999999962747 0.9699999999999704
26.75 2.235000000335276 0.9899999999999523
26.729999999981374 1.8849999997764826 1.009999999999991
26.71999999997206 1.5549999997019768 1.0
26.70000000001164 1.1950000002980232 1.0199999999999818
26.679999999993015 0.8449999997392297 1.0499999999999545
26.65999999997439 0.4950000001117587 1.079999999999984
26.649999999965075 0.14499999955296516 1.079999999999984
26.630000000004657 -0.2050000000745058 1.089999999999975
26.25 -2.1950000002980232 7.4599999999999795
